# .PCD v0.7 - Point Cloud Data file format
VERSION 0.7
FIELDS x y z intensity
SIZE 4 4 4 4
TYPE F F F F
COUNT 1 1 1 1
WIDTH 371
HEIGHT 1
VIEWPOINT 0 0 0 1 0 0 0
POINTS 371
DATA ascii
-38.439354 -24.910635 3.857851 9
-38.265381 -24.430801 5.3614798 10
-34.640827 3.396651 7.7463202 13
-34.016205 -26.226128 3.6157308 9
-33.203533 -11.48837 4.153244 10
-33.189709 -11.588055 5.3684864 11
-30.810715 -7.2046518 2.6694293 9
-30.138552 -5.3143268 6.8114848 13
-29.672771 -11.38699 7.0721564 13
-29.58268 17.140064 1.7539326 8
-29.292084 -13.745864 7.1988788 13
-29.121899 -6.2231121 3.5214515 10
-28.909185 -8.1189871 3.550364 10
-28.678356 -15.865002 5.0028706 11
-28.479839 -7.2254415 3.4742675 10
-28.597307 -8.296814 4.5481386 11
-28.455343 -12.925407 5.8729 12
-28.597385 -8.1893024 6.620297 13
-28.336103 -9.1862593 5.5989685 12
-28.192167 8.2297935 2.4773707 9
-28.087383 5.8059607 5.3911395 12
-27.827858 -12.763935 4.6746135 11
-27.977947 -7.5431871 5.4470453 12
-27.840765 -9.502038 6.5466251 13
-27.636158 -14.08823 3.665431 10
-27.751673 -9.9777126 5.5428519 12
-27.546936 8.2406664 3.399291 10
-27.526489 -6.9691443 4.337501 11
-27.421732 -6.4756551 5.2967825 12
-27.345572 -5.8297772 4.2713323 11
-27.317066 5.5773616 7.1831703 14
-26.761324 5.8059459 6.0941868 13
-26.670341 7.3836308 6.1580305 13
-26.212921 7.001482 6.989697 14
-26.05525 10.352923 2.364259 9
-26.080338 9.4352961 3.2784061 10
-26.102566 7.6756525 7.0089169 14
-25.802839 10.478306 5.232862 12
-25.305361 8.4616385 4.0747895 11
-25.395739 9.3843384 4.1342301 11
-25.128038 12.552874 3.31898 10
-24.987091 13.177252 3.3375742 10
-24.990488 8.1919241 4.9424648 12
-24.732094 8.0309734 5.7860107 13
-24.436781 13.194804 4.2388639 11
-23.273567 11.099911 3.9363601 11
-23.079571 11.63767 3.9456344 11
-22.60961 14.107241 4.0667205 11
-22.734024 10.092812 6.4060116 14
-22.566429 11.123772 4.7265444 12
-22.469688 10.650292 5.5312614 13
-22.14983 11.453084 5.5462184 13
-22.137585 13.552169 5.771946 13
-21.723423 14.056457 5.7532783 13
-21.722998 11.498831 6.328877 14
-21.573572 13.87465 6.6030631 14
-21.406553 15.335226 6.7777238 14
-20.121231 13.714794 2.8756132 10
-19.904396 20.932661 2.4298131 9
-19.848513 14.457587 2.8993762 10
-19.731634 20.721371 0.48929176 8
-19.680817 20.45443 3.3485053 10
-19.799135 13.786529 3.6808777 11
-19.156935 4.5640283 1.0120834 8
-19.135643 4.7006917 2.330246 10
-19.141596 4.7128282 3.0115049 11
-19.131903 4.7886438 4.3896179 13
-18.738008 43.417839 0.79983097 8
-18.601736 -35.806 8.9550896 13
-18.396317 21.794401 1.4583025 8
-18.367083 21.095358 2.3520892 9
-17.768591 20.972645 4.1887798 11
-17.682661 17.410021 4.6562681 12
-17.67271 42.166264 5.3830566 10
-17.498884 20.802326 5.0987711 12
-17.594683 41.315285 6.8346891 11
-17.221691 22.64325 3.3536601 10
-17.297262 42.723385 3.8670607 9
-17.34585 22.683485 4.3504782 11
-16.894547 21.140707 5.0753837 12
-16.405622 20.42939 6.7372279 14
-16.289974 20.270683 5.7752666 13
-16.301163 32.017879 6.7332563 12
-16.008463 22.747684 1.4208059 8
-16.071747 -35.17083 7.2438955 12
-15.985767 24.201094 4.4172649 11
-15.787472 -34.780624 9.8140001 14
-15.591694 22.623518 2.3084149 9
-13.278852 26.865507 3.5286703 10
-13.125537 26.531956 2.4841504 9
-7.8025942 60.688858 3.1084387 8
-7.8397288 20.79504 4.1605315 12
-7.9921074 59.3918 5.0185862 9
-7.4246178 20.877527 4.1478519 12
-7.534162 20.795502 4.903657 13
-7.5406508 20.635384 5.6401477 14
-7.3547592 12.145144 2.6593168 12
-7.2429428 20.965733 3.3723421 11
-7.0497603 12.108137 0.71428984 8
-7.0045352 12.041001 1.1686517 9
-7.031672 12.010857 1.6381043 10
-6.9590373 20.270388 1.0903677 8
-6.9646263 20.310673 1.7991399 9
-6.8633428 12.084018 2.1138978 11
-6.8086367 12.175249 2.6120436 12
-6.9113874 13.636328 3.3896804 13
-6.7083802 12.039399 0.70241785 8
-6.6078777 12.22257 1.1652756 9
-6.6113696 5.546207 1.315546 11
-6.6228127 5.561779 1.6226888 12
-6.699573 12.223576 1.6402322 10
-6.6096163 5.5235429 2.2156782 14
-6.4730701 12.226463 0.2342412 8
-6.5595264 5.5241461 0.43900344 8
-6.5256629 5.5350008 0.71994597 9
-6.4668732 5.5597811 1.0060532 10
-6.5458183 5.5701885 1.9094514 13
-6.4736142 11.938106 3.011013 13
-6.3191681 5.414073 -0.13474098 7
-6.2187386 5.7694945 1.0003498 10
-6.2446117 5.9100399 1.3100525 11
-6.2784085 5.9088163 1.6169494 12
-6.288918 5.9229188 1.9184914 13
-6.2474723 5.8884325 2.2073636 14
-6.3471522 11.716645 3.4208596 14
-6.0650764 5.5375915 -0.13306913 7
-6.1485529 5.8417802 0.43380126 8
-6.1998148 5.7479115 0.7109803 9
-5.9602036 -13.943928 3.3633659 13
-4.0491877 -15.893812 2.4907289 11
-4.0656385 -15.733153 3.0391946 12
-3.9554589 -14.177074 3.7766581 14
-3.9108865 31.715179 4.8548002 11
-3.8101189 30.999287 5.8426194 12
-3.6927338 33.210857 3.9259665 10
-3.494463 -16.239878 2.5217583 11
-3.0599179 -3.2665644 0.30323851 8.5
-3.1360512 -14.144266 3.2084205 13
-3.1237836 -14.069532 3.696399 14
-2.9706955 -3.3189282 0.22782831 8
-2.8607662 -14.390699 3.2487328 13
-2.7698596 -3.2772665 0.36109817 9
-2.71173 36.449661 1.8545752 8
-2.205379 -2.6674507 -0.056968164 7
-2.228976 -3.203258 0.19906542 8
-2.2395067 -3.2371306 0.33069459 9
-2.1716311 -2.6331639 -0.40138018 4
-2.1766715 -2.637332 -0.28729898 5
-2.184114 -2.6443055 -0.1736103 6
-2.1051216 -3.4246747 0.20475742 8
-2.003067 -3.3544931 0.32778531 9
-2.0805199 -15.874337 2.9910476 12
-2.1705835 -14.440081 3.2319067 13
-1.8549384 -3.3966601 0.19684786 8
-1.8068141 -3.3338768 0.31784129 9
-1.5537915 -2.6458683 -0.46632195 3
-1.3456382 -3.2459147 0.17812002 8
-1.3411441 -3.231281 0.29248247 9
-1.1129615 3.0997572 -0.38296646 4
-1.0214221 3.3675759 -0.17634392 6
-1.086457 -3.4158387 0.18123379 8
-1.0174786 3.3677359 0.058612145 8
-1.1216626 -3.4473202 0.30247837 9
-1.0197157 3.3834932 0.29353094 9
-1.0190589 3.3889432 0.47303319 10.5
-1.0145609 3.3843017 0.71631384 12.5
-1.0908365 25.353046 6.5070109 14
-0.95383167 3.1057897 -0.48840511 3
-0.93848014 3.1008635 -0.26903841 5
-0.97770894 3.3801579 -0.057581805 7
-0.89173162 -3.3536432 0.28907281 9
-0.93299377 -16.269156 1.909093 10
-0.64387977 3.1213393 -0.47844693 3
-0.66480207 3.1098814 -0.31649405 4.5
-0.79188532 3.4793797 -0.11960152 6.5
-0.78354305 4.1629848 -0.069562383 7
-0.65976471 -3.2800586 0.16843899 8
-0.79251379 3.4234519 0.058351159 8
-0.65615523 -3.2542822 0.38776922 10
-0.7919566 3.432092 0.29214188 9
-0.77907425 4.1640267 0.21337833 8
-0.7842679 4.6596174 0.31550825 8.5
-0.79038697 3.4351604 0.47059989 10.5
-0.78059882 4.1196141 0.48873332 10
-0.78604871 4.6846972 0.55413008 10
-0.78844595 3.4160931 0.70961344 12.5
-0.77676076 3.9888463 0.75402308 12
-0.78318077 4.6784692 0.71551496 11
-0.79556471 3.4301639 0.89535928 14
-0.77946466 3.6581867 0.82155752 13
-0.77717876 4.6543775 0.87641901 12
-0.48021683 -3.3040166 0.16777614 8
-0.52552664 -3.3032815 0.39027551 10
-0.42079061 -16.26033 1.3552346 9
-0.46029317 -14.220013 3.1455119 13
-0.3373608 -3.2550581 0.27122173 9
-0.22269119 25.663038 6.5798893 14
-0.023605786 -3.1824348 0.051571216 8
0.13244519 -2.733217 -0.046042975 7
0.0737288 -14.332557 3.1677516 13
0.37919965 -2.6523786 -0.44760126 2.5
0.37729341 -2.6511064 -0.31119338 4
0.35188341 -16.280367 1.3558016 9
0.29618776 -16.333437 1.912089 10
0.3389039 -16.298262 2.4688687 11
0.21265858 -14.244751 2.65728 12
0.37965506 -14.100131 3.6100614 14
0.54483628 -3.1630743 -0.26764384 5
0.53088039 -3.1476538 -0.10751463 6.5
0.44900262 -3.1666164 0.051233046 8
0.55741048 54.056652 2.7412264 8
0.56940287 53.267334 4.4555182 9
0.90961915 5.6799631 -0.095531307 7
0.89598835 5.925282 0.3007344 8
0.88514602 5.8356147 0.48889509 9
0.91661996 5.7759528 0.68041474 10
0.86772209 5.8064284 0.88366526 11
0.86440766 5.7531996 1.2774945 13
0.84653968 5.7415309 1.4759432 14
1.3577437 5.5583014 -0.288183 6
1.339417 5.6283183 -0.096276551 7
1.3085724 5.7105188 0.29352769 8
1.2737598 5.7127194 0.48429245 9
1.2796277 5.7296214 0.68254244 10
1.2844663 5.7369246 0.88417822 11
1.2814928 5.7131944 1.0845776 12
1.2799195 5.6959505 1.281046 13
1.2328019 5.6395335 1.4670143 14
1.9640312 -16.175228 3.0371106 12
1.8149418 39.416142 5.9908915 11
2.0859654 -16.372253 3.6450477 13
2.5770292 -10.875147 2.8525665 14
2.4654922 -16.404415 3.091347 12
2.5643327 -16.432268 4.2537065 14
2.6046445 -10.979613 2.4863787 13
2.8514855 39.522785 8.7756882 13
3.415453 -16.127447 3.0702894 12
3.7491179 -10.837732 2.5242956 13
3.7505167 -10.967175 2.9559116 14
3.7458899 36.331814 5.5432858 11
3.7888896 36.619297 6.8812499 12
4.5760994 -19.703539 1.0147753 8
4.5715647 -19.71294 1.6806054 9
4.85782 -14.486139 0.76423812 8
4.881875 -14.422119 1.2615534 9
4.9506993 -14.342778 1.7687387 10
4.8048205 -14.095778 2.7694697 12
5.0218396 -14.272055 2.283143 11
5.1453142 -14.068553 2.7852499 12
7.0336852 -16.368139 3.9261639 13
7.5911822 -13.88308 4.0348907 14
7.6584625 -14.102641 3.53251 13
7.7804222 -16.373875 3.9941733 13
7.9597197 -13.914311 3.5279171 13
8.112504 -19.669355 1.0639703 8
8.0071402 -14.090791 3.0097034 12
8.2579603 -13.115215 3.9616823 14
8.4868298 -19.887249 1.7917087 9
8.4432888 -13.215659 3.4609036 13
9.1263933 -10.149664 3.0088727 13
9.1595888 -10.193782 3.4994376 14
9.2634201 29.405323 1.5563505 8
9.2937775 24.218309 4.839726 12
9.3885708 24.43927 5.7869372 13
9.4899616 -10.409197 2.1272058 11
9.5797892 -8.6590767 3.2953522 14
9.6030865 -10.38033 0.70919466 8
9.626606 -10.282506 1.1686954 9
9.6348534 -10.16944 1.6344643 10
9.6642532 -10.15048 2.607461 12
9.7879372 -8.9013071 2.9150002 13
9.8643255 24.302004 5.796957 13
10.067671 -19.68416 1.1039745 8
10.132929 -19.675264 1.8322533 9
10.016542 -9.6319599 2.5847864 12
10.00573 24.300152 3.9800735 11
10.359985 28.723494 2.5450835 9
10.3307 -17.217165 3.0382168 11
10.562902 28.753155 1.5454799 8
10.465987 23.842417 5.7543969 13
10.547829 23.802004 6.6638932 14
10.781048 -19.705641 1.8591272 9
11.04029 -16.359337 3.6783071 12
11.544435 -19.651815 2.6660314 10
11.500977 26.988661 3.4348836 10
11.629268 27.081839 2.4553156 9
11.713978 -16.349792 3.7484004 12
11.693621 -16.333035 4.4356813 13
11.70528 23.963629 5.8933754 13
11.903522 -19.655388 1.1560752 8
11.834578 24.689718 3.2043777 10
11.862105 24.148642 4.0737462 11
12.054957 -19.641535 1.917287 9
12.348013 27.099749 2.4805698 9
12.267128 23.829473 4.0577397 11
12.482491 26.305889 1.4673617 8
12.518089 26.143883 2.4139438 9
12.564912 -16.312719 3.8372755 12
12.763888 -19.650167 1.1786309 8
12.756419 -19.653303 1.9490932 9
12.738769 -19.648199 2.7387738 10
12.866466 23.721785 3.1573961 10
12.993348 24.063272 6.0426149 13
13.103949 26.142445 1.4733548 8
13.098516 -16.24942 3.1569419 11
13.069258 23.360855 4.0520387 11
13.151733 23.838387 5.0773101 12
13.353827 23.921526 2.2802157 9
13.229995 -16.220299 4.6217442 13
13.402615 26.277822 3.4525139 10
13.418223 -16.335304 3.9394829 12
13.583543 23.252577 4.0761847 11
14.916005 25.788528 1.5001124 8
15.268158 -19.64419 1.2508649 8
15.264755 -19.653646 2.0695457 9
15.256543 -14.401817 2.4508312 10
15.213164 -19.600824 2.9014184 10
15.575231 -14.223077 1.0586829 8
15.412098 -14.539176 1.7599843 9
15.428471 -14.488247 3.1999471 11
15.463399 20.973431 3.9421434 11
15.596348 20.862551 4.854682 12
15.623297 -14.187118 1.7528155 9
15.617042 -14.196156 2.4652665 10
15.772967 -19.433113 2.9265714 10
16.140099 21.35096 3.1290646 10
16.080938 20.182259 4.808876 12
16.371939 -19.6285 1.2848214 8
16.366146 -19.635168 2.1255558 9
16.387638 20.054136 3.917227 11
16.482544 19.935968 3.0232208 10
17.236601 19.386158 5.7269177 13
17.344538 19.493422 6.672657 14
17.282518 24.857344 6.6887894 13
18.465832 17.849764 6.5663486 14
18.650526 19.004278 4.026515 11
18.975325 -16.314428 3.7847099 11
18.898493 -16.156425 4.6330156 12
19.459099 18.027401 5.8551307 13
19.737803 -14.315917 2.0250306 9
19.607094 -16.417976 2.988312 10
19.763439 -14.265946 3.6852317 11
19.677958 -16.291227 3.8636591 11
19.690605 -14.42291 5.3879724 13
19.727888 17.487915 5.818728 13
19.81428 -14.177454 1.2224642 8
19.80827 -14.193721 2.8464735 10
19.825224 -14.137635 4.5360513 12
19.804159 17.432274 6.7453904 14
20.299513 21.376453 3.4456036 10
20.432617 21.2791 1.4820932 8
20.532141 21.093422 2.4465523 9
21.027596 14.501848 4.7561836 12
21.163176 13.434102 5.5300612 13
21.484217 14.250545 3.0098579 10
21.580301 13.349069 3.8341641 11
21.561142 13.792789 4.7655807 12
21.908941 16.593138 3.2098382 10
21.967827 12.558091 3.8230801 11
21.887838 17.531548 6.1900196 13
22.162561 12.979166 2.1313295 9
22.11924 13.806089 2.1640778 9
22.02343 18.468662 4.3460412 11
22.115471 18.071438 5.3205576 12
22.258968 13.807645 1.3132315 8
22.223738 17.287415 2.3383079 9
22.522261 16.630207 2.3248153 9
26.132576 -15.256134 4.5763669 11
26.075514 -15.455145 5.648602 12
26.233059 -15.518188 3.5612698 10
35.822289 28.0748 2.2863469 8
